ply
format ascii 1.0
element vertex 718
property float x
property float y
property float z
end_header
0.0228330120444297791 0.0614745020866394043 -0.0280704479664564133
-0.0414048060774803162 0.0482675954699516296 0.0400317497551441193
-0.0225610546767711639 0.0603133253753185272 -0.0385717526078224182
-0.0897756665945053101 0.103658005595207214 0.00730440905317664146
0.0424500927329063416 0.105123929679393768 -0.00393215520307421684
-0.0458971038460731506 0.117300495505332947 0.0374898649752140045
-0.0941402465105056763 0.126714363694190979 0.0133062731474637985
0.000643749721348285675 0.0365334600210189819 -0.013157406821846962
-0.0146987047046422958 0.100955136120319366 -0.0332939364016056061
0.0118468832224607468 0.0342363864183425903 0.022184593603014946
0.0404985100030899048 0.111688286066055298 0.000128403888083994389
-0.0238627083599567413 0.0403414182364940643 -0.012623894028365612
-0.0669912397861480713 0.0785722285509109497 0.0381424464285373688
0.0164418462663888931 0.131700590252876282 -0.00271204742603003979
0.0140194986015558243 0.106760859489440918 -0.0250426661223173141
-0.0530317984521389008 0.175762414932250977 0.00568952737376093864
-0.0665047317743301392 0.0562149509787559509 0.024861825630068779
0.0531124882400035858 0.0773266777396202087 0.0153164304792881012
-0.0591750219464302063 0.0642591565847396851 0.0362731516361236572
-0.021294543519616127 0.0332642383873462677 0.0444308705627918243
5.1619081204989925e-05 0.0517407506704330444 0.053599085658788681
-0.0113197388127446175 0.03897901251912117 -0.0248395353555679321
0.0349075794219970703 0.102353386580944061 -0.0114037506282329559
0.0570052675902843475 0.0741915479302406311 0.0117937857285141945
0.0397753491997718811 0.101267457008361816 0.0316894017159938812
0.0455910898745059967 0.0839019939303398132 0.0228916611522436142
-0.0327359661459922791 0.078473314642906189 0.0486401207745075226
-0.0158976241946220398 0.0759884864091873169 -0.0434712916612625122
0.0156580284237861633 0.111935220658779144 0.044826854020357132
0.0380835160613059998 0.0601094774901866913 0.0357957929372787476
-0.0651422962546348572 0.144805803894996643 0.0169648937880992889
-0.0765773802995681763 0.137941822409629822 -0.0157408677041530609
-0.0520251281559467316 0.0352678671479225159 0.0102738440036773682
-0.0857076048851013184 0.152466922998428345 0.013583451509475708
0.0318318754434585571 0.044881131500005722 -0.0100595736876130104
-0.00783063843846321106 0.0860693752765655518 -0.039147794246673584
-0.0672916173934936523 0.0519252754747867584 0.0417132563889026642
-0.00865321792662143707 0.0606570988893508911 -0.0385806411504745483
-0.0715342015027999878 0.0996177121996879578 0.0391761288046836853
-0.0501615703105926514 0.129023447632789612 -0.0115802492946386337
-0.0123099144548177719 0.0736878439784049988 0.0569046363234519958
-0.0822359547019004822 0.12694355845451355 0.0498534850776195526
-0.0844141244888305664 0.0781794488430023193 0.0216250550001859665
-0.0243287980556488037 0.1892051100730896 -0.0163836907595396042
-0.0412475764751434326 0.138042852282524109 -0.00506758876144886017
-0.00286476477049291134 0.0331317521631717682 0.0356575436890125275
-0.0132863204926252365 0.0314111523330211639 0.0443005897104740143
-0.0189428646117448807 0.0264254007488489151 0.0406954735517501831
-0.0769567787647247314 0.185220435261726379 -0.0446952171623706818
0.0134941739961504936 0.0955194160342216492 0.0551722124218940735
-0.00199462799355387688 0.0371711179614067078 0.0381982959806919098
-0.0577469691634178162 0.130335345864295959 -0.00679988320916891098
-0.0125849945470690727 0.107712224125862122 -0.0249038971960544586
0.0169284064322710037 0.132120832800865173 -0.00575646664947271347
-0.089230462908744812 0.0922373309731483459 0.0217037629336118698
-0.021768670529127121 0.0633599460124969482 -0.0328111946582794189
-0.0795635730028152466 0.139370650053024292 0.0481410808861255646
0.0270745866000652313 0.085805453360080719 0.0458459332585334778
0.0461172908544540405 0.0735235884785652161 -0.0014325013617053628
-0.0236502531915903091 0.149650648236274719 -0.00435224082320928574
0.0251007191836833954 0.124412268400192261 -0.00854360498487949371
-0.0629315227270126343 0.0431169085204601288 0.0447348430752754211
-0.0129483211785554886 0.172738894820213318 -0.0202076099812984467
0.0167579911649227142 0.0328261367976665497 0.00463346438482403755
0.008480084128677845 0.0389043614268302917 0.0356528647243976593
-0.00106934062205255032 0.0998704582452774048 -0.0295390002429485321
-0.0639209002256393433 0.0315811820328235626 -0.017014646902680397
-0.00782496761530637741 0.0340529419481754303 0.0588297098875045776
-0.0665213838219642639 0.0506793968379497528 0.032561618834733963
-0.0673735514283180237 0.151219666004180908 -0.0340132862329483032
0.00310740829445421696 0.0869921743869781494 0.0586564913392066956
-0.0814888924360275269 0.187996521592140198 -0.0367557629942893982
0.0193781964480876923 0.0332400351762771606 0.0246794577687978745
0.0206881891936063766 0.074311383068561554 -0.0307315010577440262
0.0302298795431852341 0.0621522441506385803 -0.020517393946647644
-0.019582623615860939 0.188443437218666077 -0.0238390527665615082
-0.0108932415023446083 0.0306150652468204498 -0.0144942980259656906
-0.026223890483379364 0.0396738126873970032 -0.00411334820091724396
0.0470327474176883698 0.0859715193510055542 -0.00109891907777637243
0.0455977916717529297 0.0998526141047477722 0.0248007029294967651
-0.00446935649961233139 0.0663128942251205444 -0.0402110926806926727
-0.0381448417901992798 0.132614180445671082 0.0151260904967784882
-0.0251321941614151001 0.0374133288860321045 -0.0222078654915094376
-0.0969239994883537292 0.127266883850097656 0.0238063354045152664
0.0434120930731296539 0.109906002879142761 0.0136328935623168945
-0.0306729674339294434 0.14670349657535553 0.00131937919650226831
-0.0856938660144805908 0.145456030964851379 0.0389300547540187836
-0.0451081991195678711 0.165822893381118774 0.00883890129625797272
0.00849586538970470428 0.0754184573888778687 -0.0371907800436019897
-0.0542265921831130981 0.0532532483339309692 0.0431988164782524109
-0.0303852483630180359 0.0368559099733829498 -0.0235540866851806641
0.0331516005098819733 0.0634404644370079041 -0.0235079824924468994
0.0354351289570331573 0.123193897306919098 0.0126511417329311371
0.0375582277774810791 0.0912445187568664551 0.0292313117533922195
-0.0889216065406799316 0.136550188064575195 0.0557430349290370941
-0.0745226740837097168 0.0364952944219112396 -0.000217002845602110028
-0.00115566188469529152 0.101165995001792908 0.0505206361413002014
-0.0913876965641975403 0.132577985525131226 0.0391216948628425598
-0.0199653562158346176 0.0919272527098655701 0.0543117597699165344
-0.0206697769463062286 0.0378412380814552307 0.00172858068253844976
-0.0373651757836341858 0.0727522671222686768 0.043963894248008728
-0.0121161751449108124 0.128845050930976868 0.0116031225770711899
-0.0426907837390899658 0.138410806655883789 0.00568616949021816254
0.012173045426607132 0.0603112466633319855 -0.0318679437041282654
-0.0180784594267606735 0.13059881329536438 -0.00744707696139812469
0.0518680252134799957 0.0513838827610015869 0.00317148305475711823
0.0045141708105802536 0.129622325301170349 0.00153918087016791105
0.00968724861741065979 0.0743513330817222595 0.0556973069906234741
-0.00424376921728253365 0.0444303303956985474 0.0575448274612426758
-0.0714800357818603516 0.15555649995803833 -0.0373619347810745239
-0.0640444159507751465 0.138392001390457153 -0.0413386598229408264
0.0363774597644805908 0.0631382763385772705 0.0484536699950695038
0.0251513011753559113 0.100419327616691589 0.043243851512670517
-0.0803287699818611145 0.114966437220573425 0.0524143017828464508
-0.0674331039190292358 0.139645501971244812 -0.0429654791951179504
-0.0227878391742706299 0.0727388635277748108 0.0513769835233688354
-0.0925612226128578186 0.145874276757240295 0.0395821407437324524
0.0349727049469947815 0.0378751493990421295 -0.00719024008139967918
-0.0624772906303405762 0.158155769109725952 -0.0464378036558628082
-0.0842358842492103577 0.119264416396617889 0.0387740544974803925
-0.0883226767182350159 0.159298539161682129 0.0276332534849643707
-0.0424432270228862762 0.135201647877693176 0.0239109378308057785
-0.018864847719669342 0.0389248505234718323 -0.0360492616891860962
-0.0271729640662670135 0.166080474853515625 -0.00918436143547296524
-0.0746039971709251404 0.117158688604831696 -0.00823495816439390182
-0.0405968166887760162 0.0640764757990837097 -0.0103702312335371971
-0.0733794048428535461 0.153165757656097412 0.00122306146658957005
0.022822156548500061 0.0293282456696033478 0.00431061955168843269
-0.0265289135277271271 0.166825279593467712 -0.00845490861684083939
-0.0590837225317955017 0.166022062301635742 0.00855107512325048447
-0.0489974692463874817 0.121150456368923187 0.0291165541857481003
0.024595409631729126 0.101451456546783447 0.0463366806507110596
0.0474099665880203247 0.0923439562320709229 0.0237902868539094925
-0.0097739044576883316 0.0350573807954788208 0.0197557061910629272
-0.00698431674391031265 0.0740418359637260437 -0.0406366214156150818
-0.0207206010818481445 0.120179533958435059 0.0168748833239078522
0.0053487350232899189 0.0930056199431419373 -0.0386444367468357086
-0.0701339095830917358 0.153192788362503052 -0.0245265550911426544
-0.0498468242585659027 0.0326728411018848419 0.0416285023093223572
-0.0392278842628002167 0.154745310544967651 0.00713369483128190041
0.0254072416573762894 0.0479898825287818909 0.043936513364315033
-0.0610748380422592163 0.0616519227623939514 -0.00309299235232174397
-0.0372015126049518585 0.0443694964051246643 0.0361665114760398865
-0.000165360295795835555 0.048087000846862793 -0.0301432851701974869
-0.0625917613506317139 0.134944558143615723 -0.0536273010075092316
0.00240393704734742641 0.108304612338542938 0.0510582290589809418
-0.0805854722857475281 0.149192407727241516 -0.000769402831792831421
0.0321004018187522888 0.110869899392127991 0.0398581735789775848
-0.0825193151831626892 0.0854579508304595947 0.0241533238440752029
-0.0569855496287345886 0.140661776065826416 0.0363279059529304504
-0.0711453855037689209 0.165942996740341187 -0.0386902950704097748
-0.0720093622803688049 0.0601649284362792969 -0.00481278402730822563
-0.078353390097618103 0.111595422029495239 -0.00571575947105884552
-0.0610369369387626648 0.135109961032867432 0.0410108119249343872
-0.0731064900755882263 0.0846609100699424744 0.0356423147022724152
-0.0366988591849803925 0.0567045137286186218 0.0437286533415317535
-0.0266628637909889221 0.101130999624729156 -0.0245978198945522308
0.0231501441448926926 0.111602991819381714 -0.0158863849937915802
-0.072906792163848877 0.135023653507232666 0.0496352612972259521
-0.076677665114402771 0.13296845555305481 0.0548121407628059387
0.0284353364259004593 0.0365039072930812836 0.0274351220577955246
0.0197492577135562897 0.0321343056857585907 -0.00296443002298474312
-0.0477681383490562439 0.134197145700454712 0.00551660358905792236
-0.0616393797099590302 0.0400334857404232025 0.0424545221030712128
-0.00433518597856163979 0.119387760758399963 -0.0109001649543642998
-0.0699086785316467285 0.172227218747138977 -0.0494818761944770813
-0.0557178817689418793 0.0423182472586631775 -0.0181928239762783051
-0.0118040703237056732 0.0389437489211559296 0.00897538289427757263
-0.0279132109135389328 0.0598730482161045074 0.0441004224121570587
-0.0543479695916175842 0.100041262805461884 -0.0197028536349534988
-0.0620545409619808197 0.157853245735168457 -0.00353803392499685287
-0.0263442955911159515 0.10524817556142807 -0.0245142392814159393
-0.0285893362015485764 0.0509450137615203857 -0.00535898283123970032
-0.0118954367935657501 0.113381274044513702 -0.0211594104766845703
-0.0676750242710113525 0.145565882325172424 -0.0209587384015321732
-0.0663402006030082703 0.162775680422782898 0.000650207919534295797
-0.0507518723607063293 0.0249233562499284744 0.0345773883163928986
-0.0381053462624549866 0.0403594858944416046 -0.00574577320367097855
-0.00310082663781940937 0.126369208097457886 0.037566404789686203
-0.0912600532174110413 0.0977609828114509583 0.0168083030730485916
-0.0350931435823440552 0.108070626854896545 0.0209319218993186951
-0.0423988066613674164 0.0423905327916145325 0.0327344983816146851
-0.023058522492647171 0.075738660991191864 -0.0411861613392829895
-0.0900693833827972412 0.113958477973937988 0.0234111882746219635
-0.078842461109161377 0.065264381468296051 0.0116168558597564697
-0.0135723790153861046 0.119344495236873627 -0.0140619538724422455
-0.0672414898872375488 0.167761534452438354 -0.0496897287666797638
-0.0389136187732219696 0.037065453827381134 -0.0381090566515922546
-0.0146011579781770706 0.126428604125976562 -0.0142097817733883858
0.0218577887862920761 0.0870419219136238098 0.0531780757009983063
0.00270363478921353817 0.0355207249522209167 0.035968337208032608
-0.0934886783361434937 0.12338913232088089 0.0479289032518863678
-0.0590739622712135315 0.0317764431238174438 0.022724078968167305
-0.0254282690584659576 0.122656524181365967 0.00228282599709928036
-0.092221483588218689 0.100245565176010132 0.034046318382024765
0.00270363478921353817 0.0355207249522209167 0.035968337208032608
0.0192314237356185913 0.0289635267108678818 0.0186153240501880646
0.031116655096411705 0.122662968933582306 0.0136515889316797256
-0.00105843145865947008 0.100435242056846619 0.0552699491381645203
-0.0279757790267467499 0.0436023473739624023 0.0224670525640249252
0.0452841967344284058 0.0961149483919143677 -0.00313703133724629879
-0.0388346686959266663 0.0632452666759490967 -0.015499369241297245
-0.0209200121462345123 0.0241442695260047913 -0.0142055116593837738
-0.0265411660075187683 0.0402296371757984161 0.00869027338922023773
0.049393869936466217 0.0721962526440620422 0.0226135551929473877
0.000119538359285797924 0.128191813826560974 0.022536909207701683
0.0127732297405600548 0.0802788138389587402 -0.0346331223845481873
-0.00383369904011487961 0.0936333164572715759 -0.0359217748045921326
0.0361188426613807678 0.10157293826341629 0.0389536060392856598
-0.050191488116979599 0.0568719059228897095 -0.00990432966500520706
-0.0491616055369377136 0.0345589257776737213 -0.0289085302501916885
0.0126927942037582397 0.105958797037601471 0.0476350225508213043
-0.0896152406930923462 0.119727060198783875 -0.00246121012605726719
0.00657637976109981537 0.0347118228673934937 0.013936927542090416
-0.00884167104959487915 0.0355176590383052826 0.0150304920971393585
0.0311670228838920593 0.0334976352751255035 -0.00220995419658720493
-0.0200318526476621628 0.0852502882480621338 0.0525235943496227264
0.0301323924213647842 0.0317296646535396576 0.00240146159194409847
0.00323111936450004578 0.0869124233722686768 -0.0361365452408790588
-0.0894255489110946655 0.149795576930046082 0.0257055237889289856
-0.0368268601596355438 0.115474440157413483 0.0339528433978557587
0.0126927942037582397 0.105958797037601471 0.0476350225508213043
-0.0710811689496040344 0.144075781106948853 -0.0342894382774829865
0.0262241195887327194 0.128839626908302307 -0.0061936844140291214
-0.0512683801352977753 0.169735908508300781 0.00429519778117537498
-0.00523408409208059311 0.0743769928812980652 0.0582451410591602325
-0.090158507227897644 0.137204661965370178 0.0328927934169769287
0.0132377380505204201 0.0445075184106826782 0.0461551845073699951
-0.061786305159330368 0.154409259557723999 0.0110889552161097527
0.0359270572662353516 0.0486272759735584259 -0.00600233767181634903
0.0570351667702198029 0.0636751502752304077 0.00565036153420805931
-0.0644204989075660706 0.146567970514297485 0.0299630556255578995
-0.0503777116537094116 0.107806555926799774 -0.018877049908041954
-0.0565108656883239746 0.045527234673500061 0.0356891006231307983
0.00447358237579464912 0.0914550498127937317 -0.0339717753231525421
0.0289388541132211685 0.0916609466075897217 0.0480967871844768524
-0.0612784922122955322 0.154887348413467407 0.0101801864802837372
0.0285498704761266708 0.113844163715839386 0.0378343090415000916
-0.0690386295318603516 0.0630392208695411682 0.0236843805760145187
-0.0785097554326057434 0.0892219841480255127 0.0318782739341259003
-0.0193108208477497101 0.0498033016920089722 -0.0399337336421012878
-0.0717487409710884094 0.0825174003839492798 0.0426668226718902588
-0.0719614550471305847 0.120060928165912628 0.0576169267296791077
-0.0448046475648880005 0.134772613644599915 0.0126549797132611275
-0.0299503840506076813 0.0753909796476364136 0.0474095046520233154
-0.0796557441353797913 0.183163970708847046 -0.0361619517207145691
-0.0689306631684303284 0.0988487899303436279 -0.0149361686781048775
-0.000416383350966498256 0.10866788774728775 -0.024791935458779335
0.0313343480229377747 0.085912756621837616 -0.0218317955732345581
-0.0116530749946832657 0.0548770204186439514 0.0572270601987838745
-0.0394817627966403961 0.106461510062217712 -0.0224178209900856018
0.0357449911534786224 0.114698596298694611 -0.00881432648748159409
-0.00877398718148469925 0.125926345586776733 0.0037268209271132946
-0.0580536387860774994 0.0258538369089365005 -0.0078591490164399147
0.0376025177538394928 0.0408758930861949921 0.0317051447927951813
-0.0148982526734471321 0.0353307276964187622 0.0337603278458118439
-0.0668987855315208435 0.160211458802223206 -0.037374541163444519
0.0392999947071075439 0.0985115990042686462 0.0229268111288547516
0.00178611476439982653 0.11447298526763916 -0.0218098163604736328
-0.0481149367988109589 0.174601227045059204 0.00108143535908311605
-0.0661222338676452637 0.144923269748687744 -0.0455845221877098083
0.0510358624160289764 0.0814823061227798462 0.00652546482160687447
-0.0513382107019424438 0.120453730225563049 0.0356053374707698822
0.0205979738384485245 0.0654684454202651978 -0.0308643821626901627
-0.076575934886932373 0.145652309060096741 -0.00162361771799623966
0.0170177146792411804 0.111007168889045715 -0.0215185154229402542
-0.0560163594782352448 0.146795541048049927 0.0280345715582370758
0.0253010876476764679 0.0779211446642875671 0.0515108928084373474
0.000337545177899301052 0.130600839853286743 0.000579324958380311728
0.00905918236821889877 0.0329776406288146973 -0.00283058616332709789
-0.00757529772818088531 0.122008718550205231 -0.0185091122984886169
0.0203032288700342178 0.131095588207244873 0.00774373812600970268
-0.0337862670421600342 0.184082388877868652 -0.00865391362458467484
-0.0865540653467178345 0.100667282938957214 0.0259858649224042892
-0.0362910442054271698 0.0391178540885448456 0.0428923517465591431
-0.0759035497903823853 0.0337289944291114807 -0.0127847753465175629
0.0334957651793956757 0.0368404202163219452 -0.012862522155046463
0.0170810483396053314 0.0848048925399780273 -0.0320640802383422852
0.0463727526366710663 0.0410619340837001801 0.00432830769568681717
0.0534911900758743286 0.0655815228819847107 -0.0042250538244843483
-0.00202995561994612217 0.0902493149042129517 0.0579776950180530548
-0.00499216234311461449 0.036843717098236084 0.0239097997546195984
-0.0875446125864982605 0.0758904591202735901 -0.00233476143330335617
0.0281495954841375351 0.126151204109191895 0.0197294279932975769
-0.0290686413645744324 0.0625243037939071655 -0.0348379909992218018
-0.0629597306251525879 0.0777746662497520447 -0.015402819961309433
0.00802356470376253128 0.0371624045073986053 0.0231118109077215195
0.0360249467194080353 0.0875616744160652161 0.0437384024262428284
-0.0861625075340270996 0.11313088983297348 -0.00322855333797633648
-0.0437611229717731476 0.127429261803627014 0.0120988255366683006
-0.0500708594918251038 0.167239263653755188 0.013544570654630661
-0.0547584667801856995 0.14941193163394928 0.0133967222645878792
-0.0195288751274347305 0.0398145802319049835 0.0023927625734359026
-0.0140031902119517326 0.0377913191914558411 0.0459214299917221069
0.0487557053565979004 0.0610529333353042603 -0.00981445331126451492
0.0321395359933376312 0.0455481074750423431 -0.0170230530202388763
-0.0631466135382652283 0.0832709446549415588 -0.0240414999425411224
-0.0193588417023420334 0.0496219433844089508 0.0526820681989192963
-0.00348608358763158321 0.0458073541522026062 0.05064353346824646
-0.0243628844618797302 0.0473147928714752197 0.0442794710397720337
-0.0665437504649162292 0.163239002227783203 0.0265392214059829712
0.0108593488112092018 0.126835867762565613 -0.00746284611523151398
0.0479313619434833527 0.0394755750894546509 0.0220623128116130829
-0.0633985549211502075 0.0369867421686649323 0.0347899310290813446
-0.0640958324074745178 0.0469791851937770844 0.0181659944355487823
-0.0560307502746582031 0.127172723412513733 0.0379775464534759521
-0.0228274296969175339 0.127822399139404297 0.0104119786992669106
0.0215747971087694168 0.0963428318500518799 0.0515576042234897614
0.0291128307580947876 0.11814349889755249 -0.012599969282746315
0.0376131869852542877 0.113836966454982758 0.0216787829995155334
0.0231516864150762558 0.124205812811851501 0.0288902577012777328
-0.0406993292272090912 0.0566241741180419922 0.0365659408271312714
-0.0510025285184383392 0.0431032031774520874 0.000874719873536378145
-0.0833973735570907593 0.121685884892940521 0.0517358072102069855
0.0336160138249397278 0.118257768452167511 0.0273692421615123749
0.0219772830605506897 0.127829223871231079 -0.00337461777962744236
-0.0385813266038894653 0.117805562913417816 0.0227960143238306046
0.0275544840842485428 0.0862728580832481384 0.0499594137072563171
0.0239718891680240631 0.105805784463882446 -0.0178862307220697403
0.0244377031922340393 0.122387632727622986 0.0351548567414283752
0.00313053163699805737 0.114404834806919098 -0.0199122689664363861
-0.0339950919151306152 0.102830052375793457 -0.0249395128339529037
-0.0147967888042330742 0.153588876128196716 -0.0119642894715070724
-0.0700001046061515808 0.0636503249406814575 0.0348726622760295868
-0.0552687384188175201 0.0964099466800689697 0.0417388863861560822
-0.0253752656280994415 0.0750586539506912231 -0.0239303279668092728
-0.00429794657975435257 0.125636205077171326 -0.0070858420804142952
-0.0480957403779029846 0.11389797180891037 0.0323659740388393402
-0.00209033722057938576 0.127988263964653015 -0.00722865434363484383
-0.0433541387319564819 0.0374335236847400665 0.016176372766494751
0.000982738099992275238 0.119692780077457428 -0.0167059861123561859
-0.0644741132855415344 0.0300557836890220642 -0.0109821613878011703
-0.0910971909761428833 0.136977478861808777 0.0241971481591463089
-0.0616897083818912506 0.0753494501113891602 0.0388229750096797943
0.0276196803897619247 0.0724555253982543945 -0.0299616307020187378
-0.0106398295611143112 0.0373038835823535919 -0.0337148196995258331
-0.0653670653700828552 0.116729103028774261 0.0361659005284309387
0.00151844997890293598 0.126200541853904724 -0.0061890874058008194
0.0118969250470399857 0.126090377569198608 -0.0160023942589759827
0.00680303014814853668 0.0357508100569248199 -0.0126929180696606636
-0.0305450893938541412 0.0852431803941726685 -0.0343774519860744476
-0.0645514130592346191 0.161337316036224365 -0.0553339645266532898
-0.0573164224624633789 0.157938867807388306 -0.0103467721492052078
0.0302842110395431519 0.114194229245185852 -0.0171572547405958176
-0.0260360166430473328 0.0766599774360656738 -0.0350950360298156738
-0.0703398808836936951 0.156320527195930481 -0.0297533683478832245
0.0450956635177135468 0.0849818512797355652 -0.0106552625074982643
-0.0570923611521720886 0.0694150328636169434 0.0421124882996082306
-0.0287548638880252838 0.0504845008254051208 -0.0420184247195720673
-0.0822939351201057434 0.0795251354575157166 0.00264963880181312561
0.0312048457562923431 0.0328574292361736298 0.0135682635009288788
-0.0876837149262428284 0.104970477521419525 -0.00592378620058298111
-0.0492731817066669464 0.0330039076507091522 -0.022531755268573761
-0.0376352258026599884 0.121682234108448029 0.0295171160250902176
-0.0217528454959392548 0.164391979575157166 -0.016366422176361084
-0.0281168129295110703 0.0375469252467155457 0.0245574377477169037
-0.0587335564196109772 0.138230398297309875 -0.00291700894013047218
0.0145161133259534836 0.120622128248214722 0.0368987247347831726
-0.076180674135684967 0.126902088522911072 0.0491244047880172729
-0.0741102173924446106 0.144735485315322876 0.0418919399380683899
-0.0645926967263221741 0.118866622447967529 0.0485080666840076447
-0.062035340815782547 0.093314439058303833 0.0402218960225582123
-0.0117455292493104935 0.0434219203889369965 0.0505109056830406189
0.00500765396282076836 0.107740074396133423 -0.025068255141377449
0.031237209215760231 0.0983260646462440491 -0.0171431098133325577
-0.013953343965113163 0.1581459641456604 -0.0146024841815233231
-0.036451384425163269 0.165201261639595032 -0.00352726224809885025
0.0399516187608242035 0.103253796696662903 0.0340782105922698975
0.0371262915432453156 0.117154844105243683 0.00511816376820206642
0.00833670236170291901 0.109180234372615814 -0.0246475450694561005
0.0621828921139240265 0.0667280405759811401 0.0123413223773241043
0.0359920039772987366 0.0310498159378767014 0.0173687301576137543
-0.0359070487320423126 0.0405760034918785095 0.0242385976016521454
-0.0810993015766143799 0.142135411500930786 0.00162308290600776672
0.0621828921139240265 0.0667280405759811401 0.0123413223773241043
-0.00146472139749675989 0.124253854155540466 -0.0140120405703783035
-0.0442346185445785522 0.0394985154271125793 -0.0318646058440208435
-0.0309466235339641571 0.0615124106407165527 -0.0254299454391002655
-0.067576192319393158 0.161207258701324463 0.00605962285771965981
0.0399516187608242035 0.103253796696662903 0.0340782105922698975
-0.0150833241641521454 0.146595656871795654 -0.0074619990773499012
-0.0663156658411026001 0.0716867074370384216 0.0412062071263790131
-0.0428268276154994965 0.0422035828232765198 0.0390137694776058197
0.02599305659532547 0.0380114950239658356 -0.0139236906543374062
-0.0479061007499694824 0.0942174866795539856 0.0420384630560874939
-0.0415670759975910187 0.150098785758018494 -0.000305419584037736058
-0.0462203286588191986 0.135653361678123474 0.0183186028152704239
-0.0731347054243087769 0.147260293364524841 -0.00834976602345705032
-0.0604582950472831726 0.14335314929485321 -0.0604633316397666931
0.0306236427277326584 0.0483936034142971039 0.0411062650382518768
-0.087535075843334198 0.151411265134811401 0.0195127632468938828
0.0211886726319789886 0.120758756995201111 -0.0119455717504024506
0.0335789509117603302 0.122221760451793671 -0.00591950397938489914
-0.0238556694239377975 0.0391525216400623322 -0.0302966609597206116
-0.00617478787899017334 0.129106983542442322 -0.00135683349799364805
-0.025943385437130928 0.0342002958059310913 -0.0269622579216957092
-0.0517027489840984344 0.0340902246534824371 -0.0425149314105510712
-0.0694870725274085999 0.151784792542457581 0.0380424372851848602
-0.000232890059123747051 0.0354531519114971161 0.0442051030695438385
-0.0744083747267723083 0.0519617237150669098 -0.000180326271220110357
-0.0803091078996658325 0.139520049095153809 -0.0158317852765321732
-0.0822493806481361389 0.0856504663825035095 0.0216534510254859924
-0.0171529818326234818 0.0634420067071914673 -0.0390687920153141022
-0.0105398092418909073 0.127324685454368591 -0.00802756473422050476
-0.072033517062664032 0.161502018570899963 -0.0231377892196178436
-0.0197175983339548111 0.0472645461559295654 0.0471761599183082581
0.0279404353350400925 0.0701392963528633118 -0.0276664718985557556
-0.0550412870943546295 0.137351334095001221 0.0122208651155233383
-0.0931712910532951355 0.104361265897750854 0.0182546116411685944
-0.0601190291345119476 0.152432858943939209 -0.0665756091475486755
-0.0338647924363613129 0.120112337172031403 0.0184169616550207138
-0.0886791348457336426 0.119193427264690399 -0.000128378349472768605
-0.0466186515986919403 0.0365791432559490204 -0.0069461064413189888
-0.0122718540951609612 0.115326538681983948 -0.0207382775843143463
-0.0754927769303321838 0.183531373739242554 -0.0515109002590179443
-0.0111273080110549927 0.125981733202934265 -0.00659220991656184196
-0.0142245404422283173 0.0921790376305580139 -0.0340230464935302734
-0.0866243541240692139 0.0852507129311561584 0.0170102007687091827
-0.0958179682493209839 0.119334757328033447 0.0120278121903538704
-0.011333538219332695 0.085397668182849884 0.0556566826999187469
-0.0609234124422073364 0.128293320536613464 0.0529239065945148468
-0.0701535642147064209 0.156027838587760925 0.0438027232885360718
-0.0609946325421333313 0.155855491757392883 -0.0114295361563563347
-0.0811660215258598328 0.186123058199882507 -0.0305878147482872009
-0.0786427855491638184 0.185616433620452881 -0.0424319542944431305
0.0454639829695224762 0.0401894897222518921 0.00221096258610486984
-0.032120920717716217 0.0357265397906303406 -0.0341016799211502075
-0.0518416352570056915 0.140012800693511963 0.0283673889935016632
-0.0340693853795528412 0.0674182996153831482 -0.0246118959039449692
-0.0195378344506025314 0.15297737717628479 -0.00779705913737416267
-0.0591402985155582428 0.0551357120275497437 0.0314679108560085297
0.034388326108455658 0.0880383476614952087 0.0450243838131427765
-0.019967230036854744 0.152917638421058655 -0.008345763199031353
-0.0392002016305923462 0.0649153366684913635 0.0396583527326583862
-0.0641154870390892029 0.115157105028629303 0.0543092191219329834
0.0339658148586750031 0.0924164950847625732 -0.0189388785511255264
-0.0553181618452072144 0.0337196886539459229 0.0385115072131156921
-0.0196497496217489243 0.15293632447719574 -0.0079589448869228363
-0.0313858538866043091 0.0378307662904262543 0.0127814523875713348
-0.0397899113595485687 0.126378417015075684 0.018899010494351387
-0.0718356296420097351 0.111653760075569153 0.0432992428541183472
-0.068201802670955658 0.144247978925704956 -0.039490479975938797
0.0107756219804286957 0.0342266932129859924 0.000519345980137586594
-0.0283385254442691803 0.0508854873478412628 -0.0240105427801609039
0.0528373010456562042 0.0811796858906745911 0.0221023131161928177
0.0372673794627189636 0.0969185754656791687 0.0343537218868732452
0.0401488691568374634 0.0846921727061271667 0.0374436452984809875
0.0451231673359870911 0.0765167176723480225 0.0317611843347549438
-0.0670628473162651062 0.04631790891289711 0.0127513231709599495
-0.0851018130779266357 0.0979582741856575012 -0.00296305539086461067
-0.0646098405122756958 0.156920656561851501 0.0221170391887426376
-0.0559047162532806396 0.0430288687348365784 0.0101283127442002296
-0.0746895968914031982 0.16965349018573761 -0.0229767225682735443
0.0236805584281682968 0.0854098573327064514 -0.0252646505832672119
-0.0499907806515693665 0.106844432651996613 0.0398124046623706818
0.0208724793046712875 0.0331303924322128296 -0.0116083128377795219
0.0345667190849781036 0.125569894909858704 0.0017701638862490654
-0.060719173401594162 0.154647782444953918 -0.0553590767085552216
-0.0554448254406452179 0.179661527276039124 -0.00801771413534879684
-0.0499907806515693665 0.106844432651996613 0.0398124046623706818
-0.0459763854742050171 0.136342078447341919 -0.00529421539977192879
-0.0784077420830726624 0.142507016658782959 -0.0112656466662883759
-0.0684460625052452087 0.173428714275360107 -0.0367802046239376068
0.0115906614810228348 0.0733288004994392395 -0.0375821739435195923
0.011890750378370285 0.101373113691806793 -0.0306139644235372543
0.036432165652513504 0.0432091839611530304 -0.00256678578443825245
-0.0562601648271083832 0.0307744722813367844 -0.0197874549776315689
0.0343658290803432465 0.0376802161335945129 0.0276519190520048141
-0.0364211350679397583 0.0718800649046897888 -0.0262845195829868317
-0.038159150630235672 0.111001849174499512 0.028127206489443779
-0.0824657455086708069 0.112021692097187042 -0.0106228487566113472
-0.0710799247026443481 0.0887787565588951111 0.0387615226209163666
-0.0336757972836494446 0.0364376306533813477 0.0365942157804965973
-0.0703317895531654358 0.123718760907649994 0.0499696768820285797
-0.0248610377311706543 0.039896886795759201 -0.0200146529823541641
-0.013890998438000679 0.0372777804732322693 0.0523648262023925781
-0.0912301242351531982 0.112045235931873322 0.0168275889009237289
-0.062638208270072937 0.166082009673118591 -0.0602298267185688019
0.0446261800825595856 0.0895704329013824463 -0.000388677377486601472
0.031408797949552536 0.0282844901084899902 0.00727410009130835533
-0.0835703685879707336 0.154028147459030151 0.024038536474108696
0.0392642989754676819 0.108816608786582947 -0.00389016116969287395
-0.0361468344926834106 0.150148108601570129 -0.00373660027980804443
-0.0626937448978424072 0.147969633340835571 0.0403718799352645874
0.0527069009840488434 0.0734605938196182251 0.0310712624341249466
0.0302858985960483551 0.109257996082305908 -0.0151306642219424248
-0.0885101407766342163 0.0930278673768043518 0.00714401295408606529
0.00878860708326101303 0.140692129731178284 -0.0162721946835517883
0.000734557281248271465 0.112748809158802032 0.0425231903791427612
-0.035161089152097702 0.128272175788879395 -0.00331245106644928455
-0.0239942092448472977 0.0392530523240566254 0.015005200169980526
0.0036655268631875515 0.11553443968296051 -0.0219556353986263275
0.0109731536358594894 0.128996565937995911 -0.00172053161077201366
-0.0716792196035385132 0.122276552021503448 -0.0108866821974515915
-0.0370032452046871185 0.0419274084270000458 -0.0244083348661661148
-0.014042009599506855 0.0362920202314853668 -0.0215446986258029938
-0.0640452727675437927 0.13838803768157959 -0.0509552396833896637
-0.027882646769285202 0.18570101261138916 -0.0138542549684643745
-0.0365205481648445129 0.0499527454376220703 0.0381441377103328705
0.0267725605517625809 0.031933128833770752 0.00889321509748697281
-0.0729123800992965698 0.131793737411499023 0.0573305338621139526
0.000468891492346301675 0.131492003798484802 -0.0018925501499325037
-0.014042009599506855 0.0362920202314853668 -0.0215446986258029938
-0.0168494582176208496 0.0346671044826507568 0.0591080933809280396
-0.0378418378531932831 0.0368438214063644409 -0.0317439921200275421
0.0120798293501138687 0.122834496200084686 -0.0127617092803120613
-0.089219607412815094 0.110739067196846008 0.0290751252323389053
0.0128338756039738655 0.126255854964256287 0.0335807651281356812
-0.0877102240920066833 0.08529672771692276 0.00213031051680445671
-0.0357997715473175049 0.0397937297821044922 0.0452011935412883759
-0.0213824175298213959 0.0380003154277801514 -0.016466805711388588
-0.0494171716272830963 0.161080464720726013 -0.00822273828089237213
-0.0276444293558597565 0.0342847779393196106 0.0364994443953037262
0.000805724936071783304 0.128983423113822937 -0.00104633008595556021
0.0437312200665473938 0.0973833724856376648 0.0324098728597164154
-0.012864312157034874 0.0816765874624252319 -0.040255669504404068
-0.013368045911192894 0.0699342787265777588 -0.0401026010513305664
0.0491529293358325958 0.0513313822448253632 0.00180417869705706835
-0.0368656143546104431 0.156822681427001953 -0.00302542350254952908
-0.0548667609691619873 0.0337149202823638916 -0.0349110476672649384
-0.0705757886171340942 0.0745121389627456665 -0.0117178363725543022
0.000780052563641220331 0.0696302056312561035 0.0597226247191429138
-0.0602030344307422638 0.0364548824727535248 0.00782053638249635696
0.00978095922619104385 0.035375986248254776 0.0014298273017629981
-0.0659399107098579407 0.0373432599008083344 0.0200090035796165466
0.0362046994268894196 0.0626248344779014587 -0.0169577952474355698
0.0435490906238555908 0.0998528599739074707 0.0228856615722179413
-0.0403373204171657562 0.0712142214179039001 -0.018774133175611496
-0.0327062644064426422 0.0392615646123886108 -0.0422513820230960846
-0.0449848026037216187 0.0754804685711860657 0.0459043122828006744
-0.0382027290761470795 0.0494552627205848694 -0.00920575112104415894
-0.0476007722318172455 0.15522061288356781 -0.00217948923818767071
-0.037074357271194458 0.105514757335186005 0.0404295735061168671
0.0134561508893966675 0.0794350802898406982 0.0576758570969104767
-0.0679652020335197449 0.163035213947296143 0.0132813407108187675
-0.0372287146747112274 0.105625621974468231 0.0409198328852653503
-0.0640067011117935181 0.155507758259773254 0.0236865319311618805
-0.034270893782377243 0.109588794410228729 -0.0188910104334354401
-0.0276965126395225525 0.0512079112231731415 -0.0326935574412345886
0.00961882062256336212 0.0410462357103824615 0.0420235320925712585
0.041729804128408432 0.11000332236289978 0.0259777810424566269
0.0463834367692470551 0.0937052071094512939 -0.00814640242606401443
-0.0216255821287631989 0.12366795539855957 0.0262215491384267807
-0.0688711404800415039 0.136138319969177246 0.0493883006274700165
0.028464803472161293 0.0943862870335578918 0.047346208244562149
0.0317062661051750183 0.0803235471248626709 0.0490903928875923157
0.0352162979543209076 0.119769550859928131 -0.000239050612435676157
0.035111553966999054 0.0969814062118530273 0.0408583395183086395
-0.0597887560725212097 0.16252213716506958 0.0168231837451457977
-0.0782737284898757935 0.106083333492279053 -0.011300290934741497
-0.0705619081854820251 0.0482322275638580322 0.0214820541441440582
-0.00642450479790568352 0.0392872877418994904 -0.0236869063228368759
0.0240411926060914993 0.10890372097492218 0.0448669604957103729
-0.0624007843434810638 0.0603004507720470428 0.036724485456943512
-0.0471267588436603546 0.140176251530647278 -0.00523966550827026367
-0.0925302878022193909 0.103802204132080078 0.003880644915625453
-0.0882581770420074463 0.118995718657970428 0.0488601513206958771
0.000143969460623338819 0.117952607572078705 0.0378072820603847504
-0.0602441988885402679 0.15018165111541748 -0.00697373691946268082
0.0107749355956912041 0.130780220031738281 -0.00785825401544570923
0.0580935105681419373 0.0663791075348854065 0.0129925897344946861
-0.0763434171676635742 0.158018320798873901 0.0192834176123142242
0.0283281523734331131 0.0315421558916568756 -0.00317817344330251217
0.00561273936182260513 0.134729489684104919 0.00901763886213302612
-0.0744155645370483398 0.154105380177497864 0.034945368766784668
-0.0341596677899360657 0.0701321437954902649 -0.0312612727284431458
-0.0110841747373342514 0.162090972065925598 -0.0177998393774032593
-0.0628746077418327332 0.0987016260623931885 -0.0224027335643768311
0.049630332738161087 0.037127520889043808 0.0142037980258464813
-0.0555376447737216949 0.085012778639793396 0.0436345189809799194
-0.0713413059711456299 0.159357011318206787 -0.0179505906999111176
-0.0211743172258138657 0.113605685532093048 0.036812514066696167
0.00234520295634865761 0.0385649837553501129 -0.0289083048701286316
0.00483347941190004349 0.0444951280951499939 0.048661448061466217
0.0488565340638160706 0.0604258067905902863 0.0313087590038776398
0.0103969760239124298 0.134642422199249268 0.0241378564387559891
0.00840496178716421127 0.103331319987773895 -0.0263364929705858231
0.0241346769034862518 0.0824503451585769653 -0.0283921770751476288
0.0596013516187667847 0.0703031569719314575 0.00559833832085132599
0.0315846726298332214 0.0990810394287109375 0.0427118800580501556
0.0126526262611150742 0.03488951176404953 0.0178722720593214035
-0.0637801289558410645 0.130102679133415222 0.0541463159024715424
-0.0663024559617042542 0.0474382787942886353 0.0397516638040542603
-0.0282782837748527527 0.0401254110038280487 -0.0147004006430506706
0.0123476125299930573 0.0340059734880924225 0.0141977565363049507
-0.0343817062675952911 0.0629134401679039001 0.0423226505517959595
-0.0607705526053905487 0.0599788278341293335 -0.0101472707465291023
-0.0743038654327392578 0.160201162099838257 0.0340653769671916962
-0.0317648909986019135 0.0467691309750080109 0.0371359959244728088
-0.0655465200543403625 0.14988003671169281 -0.0238684322685003281
0.0264775101095438004 0.0340853184461593628 -0.00764215830713510513
-0.000563316454645246267 0.102158240973949432 -0.0320374928414821625
0.0484265983104705811 0.0504067428410053253 -0.0054604080505669117
0.0175919122993946075 0.0597651191055774689 -0.0312928520143032074
-0.0620580650866031647 0.151363730430603027 0.0186102073639631271
-0.0617389120161533356 0.156614154577255249 -0.0618366263806819916
-0.0445502810180187225 0.0616386234760284424 0.0388994030654430389
-0.0715876296162605286 0.10393291711807251 -0.0109488377347588539
-0.0806236565113067627 0.104886792600154877 -0.00981990154832601547
0.0475615039467811584 0.1001778244972229 0.00965257734060287476
-0.0620580650866031647 0.151363730430603027 0.0186102073639631271
0.0365022718906402588 0.0738981291651725769 0.0427351817488670349
-0.0312151312828063965 0.123926348984241486 0.022937290370464325
0.0438000671565532684 0.111230924725532532 0.0108783738687634468
0.0096190720796585083 0.0931762680411338806 -0.0312003064900636673
-0.0146758472546935081 0.182467669248580933 -0.0232640430331230164
-0.0455608777701854706 0.18385016918182373 -0.00321271130815148354
0.0124361813068389893 0.0365649648010730743 0.0290644038468599319
0.0418626964092254639 0.0731891840696334839 0.0346336551010608673
-0.0631864443421363831 0.125003620982170105 0.0503189787268638611
0.0431056059896945953 0.0859985947608947754 0.0284423716366291046
-0.0330177620053291321 0.0506553091108798981 0.0409837253391742706
-0.00265627703629434109 0.127931848168373108 -0.00425192341208457947
-0.0398858189582824707 0.0373694151639938354 0.0370765700936317444
0.0322575531899929047 0.041157986968755722 0.0374237000942230225
-0.0330177620053291321 0.0506553091108798981 0.0409837253391742706
-0.0769353434443473816 0.0835493430495262146 0.0370818451046943665
-0.0900959670543670654 0.133082062005996704 0.0464436709880828857
0.0295184440910816193 0.0430862903594970703 -0.0169324371963739395
-0.0307124834507703781 0.0415882579982280731 0.035668693482875824
0.0301744863390922546 0.114297755062580109 0.0323067530989646912
-0.00902958959341049194 0.153516247868537903 -0.0144094750285148621
0.042116064578294754 0.102861188352108002 -0.00885545182973146439
-0.0124805662781000137 0.0328114666044712067 -0.0313602946698665619
-0.0605911165475845337 0.0781902298331260681 0.043826669454574585
-0.00179603800643235445 0.0378729701042175293 0.0302659980952739716
-0.077333301305770874 0.137425065040588379 0.0501441173255443573
0.0188354942947626114 0.101722784340381622 0.0489593967795372009
-0.0518752895295619965 0.0497249439358711243 0.0343522578477859497
-0.0545153170824050903 0.109225563704967499 0.0397719405591487885
-0.0174269117414951324 0.0457106903195381165 -0.0361626558005809784
-0.00902722775936126709 0.153519555926322937 -0.0144035173580050468
-0.0708523094654083252 0.170181348919868469 -0.0224057286977767944
-0.010854954831302166 0.0552219487726688385 -0.0390625633299350739
-0.0768827348947525024 0.138957783579826355 0.0514618046581745148
-0.0521963946521282196 0.0411475859582424164 0.0120022082701325417
-0.0476227737963199615 0.160662472248077393 0.00414387276396155357
-0.0836119726300239563 0.132419079542160034 0.0553538054227828979
-0.0707191377878189087 0.0627613961696624756 0.0110107753425836563
-0.0234613604843616486 0.0587873309850692749 -0.0412763655185699463
-0.0072977263480424881 0.0359742678701877594 0.0429452471435070038
0.0115596465766429901 0.068696141242980957 -0.0340307243168354034
-0.00724756671115756035 0.0961696505546569824 0.058539755642414093
0.0237748213112354279 0.0919159650802612305 0.0490860007703304291
-0.0556053146719932556 0.0573203116655349731 0.0420174822211265564
-0.0264221783727407455 0.0979308784008026123 -0.0295863505452871323
-0.0115470429882407188 0.110911935567855835 0.0414735078811645508
-0.0579520165920257568 0.114429973065853119 0.0350794978439807892
-0.0115505754947662354 0.0652738958597183228 -0.0384294837713241577
-0.0440073609352111816 0.0279926713556051254 0.0402236133813858032
-0.0510074794292449951 0.0623169057071208954 0.0423663966357707977
0.0417403504252433777 0.100137859582901001 -0.00809762720018625259
-0.0544996447861194611 0.113387748599052429 -0.0158193781971931458
-0.0342985354363918304 0.0383516065776348114 -0.0128450384363532066
-0.035740874707698822 0.0536005832254886627 0.0400153137743473053
0.0391247011721134186 0.0388534888625144958 0.0306147448718547821
-0.021410016342997551 0.105526864528656006 0.0466365739703178406
-0.0309134088456630707 0.109254568815231323 0.039182908833026886
-0.041618838906288147 0.0431802049279212952 0.026230713352560997
-0.046380944550037384 0.134736150503158569 -0.000922597420867532492
0.0153934741392731667 0.126102834939956665 -0.00818253308534622192
-0.0661677196621894836 0.16751021146774292 -0.043477129191160202
-0.00512362131848931313 0.0332613512873649597 -0.0059704883024096489
-0.0157948639243841171 0.10293462872505188 -0.0269364304840564728
-0.00475276168435811996 0.0361623801290988922 0.0477017536759376526
-0.0672697499394416809 0.158502861857414246 0.00935526378452777863
-0.00467157177627086639 0.0747735574841499329 0.0620866008102893829
-0.0910194143652915955 0.0976629853248596191 0.0133081953972578049
-0.0751807615160942078 0.176836326718330383 -0.0389139018952846527
-0.0527166351675987244 0.151033863425254822 -0.00160271255299448967
-0.0246536843478679657 0.126520931720733643 -0.0100202569738030434
0.0208777561783790588 0.0737892314791679382 0.0515355318784713745
-0.0735514089465141296 0.0441404953598976135 0.00324266543611884117
-0.0518411062657833099 0.072963126003742218 -0.0139229772612452507
-0.000520952802617102861 0.0375311598181724548 0.0413850881159305573
0.0270794909447431564 0.0624409429728984833 0.0485985167324542999
-0.0550693720579147339 0.148280918598175049 0.00397709663957357407
-0.025535954162478447 0.170620322227478027 -0.0145982252433896065
-0.011457676999270916 0.0366692729294300079 -0.015760546550154686
0.0254460573196411133 0.0334952510893344879 0.0201394166797399521
-0.0394292436540126801 0.182283684611320496 -0.00513447774574160576
-0.0235095620155334473 0.053724631667137146 0.0484194420278072357
0.00314079690724611282 0.095910586416721344 -0.0343871824443340302
-0.0337622649967670441 0.0425592139363288879 -0.0100011322647333145
-0.00837432499974966049 0.036267552524805069 0.0359925813972949982
0.04292258620262146 0.0363573059439659119 0.01018491480499506
0.0170656535774469376 0.091228775680065155 -0.0315585136413574219
-0.0588022619485855103 0.037565920501947403 0.0135333240032196045
0.0363406389951705933 0.0855428352952003479 -0.0205002129077911377
-0.0240476448088884354 0.0344495177268981934 -0.0227985437959432602
-0.0840868949890136719 0.0967705696821212769 -0.00641572475433349609
-0.0320864245295524597 0.0472278296947479248 0.039347868412733078
-0.0541435331106185913 0.0329796858131885529 1.81182494998211041e-05
-0.0361313186585903168 0.156544297933578491 -0.00469951936975121498
-0.0536663569509983063 0.0579903870820999146 -0.0143155353143811226
-0.0669259801506996155 0.161670833826065063 -0.0404305383563041687
-0.0124850254505872726 0.101183511316776276 -0.0308542791754007339
-0.038882765918970108 0.174817442893981934 -0.00550556555390357971
-0.0895130708813667297 0.140062764286994934 0.00784033164381980896
0.0175251886248588562 0.0949045866727828979 0.0553094595670700073
-0.0640751197934150696 0.131762802600860596 -0.0464147180318832397
-0.0958980023860931396 0.126672148704528809 0.0433009937405586243
-0.0689281374216079712 0.0518179908394813538 0.0250814817845821381
0.0121002905070781708 0.0336773954331874847 -0.00746658677235245705
0.0480485595762729645 0.0478813834488391876 0.000419291958678513765
0.000190044316696003079 0.0421303622424602509 0.0464649088680744171
-0.0379989407956600189 0.131789132952690125 -0.00778955919668078423
-0.0464776940643787384 0.0392904318869113922 0.0095983501523733139
0.0388227775692939758 0.0321355909109115601 0.00188164471182972193
-0.0459362417459487915 0.0768707171082496643 -0.0210287701338529587
0.0370305143296718597 0.1194438636302948 0.0178353246301412582
-0.0767248645424842834 0.113187968730926514 0.0466435849666595459
-0.00325716356746852398 0.0870625749230384827 0.0577974282205104828
-0.0655621439218521118 0.0443324744701385498 0.0200560707598924637
0.0353821255266666412 0.0922308862209320068 0.0422249957919120789
-0.0615597665309906006 0.0338724032044410706 0.0403619296848773956
-0.023370375856757164 0.119285792112350464 -0.0128453522920608521
0.0469014793634414673 0.105838999152183533 0.0103940833359956741
